ply
format ascii 1.0
element vertex 1085
property float x
property float y
property float z
property uchar red
property uchar green
property uchar blue
end_header
1.61667 -1.96049 9.87438 40 64 87
2.65553 -0.78774 8.29953 18 34 47
-4.33303 -3.08872 9.90734 32 84 158
-3.94529 -0.370338 7.95997 48 68 91
2.78088 -1.66965 9.64821 26 47 69
2.80517 -1.98265 10.1316 29 52 76
-4.42711 -2.2523 9.64392 126 142 141
-4.42711 -2.2523 9.64392 126 142 141
-0.359984 -2.72628 10.4568 164 158 168
-4.84724 -2.90261 11.0059 128 157 171
2.26612 -4.26347 15.1841 35 67 104
2.50247 -2.69186 12.2759 38 56 75
-0.116407 0.222955 -1.49764 206 236 253
-0.116407 0.222955 -1.49764 206 236 253
2.52909 -3.0121 12.5131 49 65 86
-0.502976 -2.70064 10.7092 59 78 106
-4.55552 -2.23952 9.6529 45 70 95
-0.116402 0.222936 -1.4976 209 238 254
-0.116402 0.222936 -1.4976 209 238 254
-0.116411 0.222962 -1.49765 207 237 254
-0.116411 0.222962 -1.49765 207 237 254
-0.116409 0.222962 -1.49765 200 231 249
-0.116231 0.222695 -1.4971 197 229 248
-0.116405 0.222951 -1.49763 208 235 251
-0.116405 0.222951 -1.49763 208 235 251
3.00362 -0.646696 8.33132 21 39 55
1.67962 -3.96693 9.6866 175 208 229
1.67962 -3.96693 9.6866 175 208 229
2.58813 -4.7425 9.11609 207 234 251
2.58813 -4.7425 9.11609 207 234 251
-0.116391 0.22294 -1.4976 194 226 247
-0.116391 0.22294 -1.4976 194 226 247
2.30784 -1.33312 9.18262 57 82 103
0.360249 -4.19058 9.46335 188 220 240
0.359908 -4.18691 9.45318 186 219 239
-1.751 -4.74526 9.25805 189 220 240
-1.751 -4.74526 9.25805 189 220 240
-4.02966 -2.87077 10.5713 107 140 166
2.6388 -3.88014 9.73508 196 226 245
-0.116399 0.222938 -1.4976 205 236 253
1.84041 -4.48999 9.28353 207 235 251
0.350798 -4.37077 9.13371 188 219 238
0.350798 -4.37077 9.13371 188 219 238
1.09136 -3.96089 9.92943 200 230 250
2.64214 -1.99309 10.0967 85 122 158
2.09168 -0.685102 8.25293 55 78 97
0.80987 -4.44114 8.80865 209 238 254
0.80987 -4.44114 8.80865 209 238 254
2.40146 -4.10806 9.5193 202 231 249
-3.47097 -2.54117 10.6849 27 49 74
-0.750785 -4.57944 9.09993 208 237 255
2.43465 -0.693083 8.32392 55 77 96
2.65166 -4.63202 17.3086 43 86 143
2.53461 -4.33481 9.2954 205 233 249
-0.116412 0.222964 -1.49766 205 236 253
3.39439 -1.70706 9.63305 84 119 154
3.39439 -1.70706 9.63305 84 119 154
2.15683 -4.32087 9.25982 204 233 250
2.15683 -4.32087 9.25982 204 233 250
2.59877 -3.91365 9.41468 198 229 246
2.73123 -4.56854 9.09096 204 233 250
0.766733 -4.60498 9.0118 189 220 239
0.791311 -4.42149 9.1129 209 237 254
0.446968 -4.69775 9.21783 190 221 240
-0.116274 0.222795 -1.49724 192 225 246
-0.116408 0.222962 -1.49764 197 228 248
2.1517 -1.32903 9.18995 56 81 102
-0.631703 -4.30185 9.33327 189 220 240
2.7948 -0.707069 8.43025 56 78 97
2.57499 -4.26035 9.50206 201 230 248
2.57499 -4.26035 9.50206 201 230 248
2.41871 -4.34574 9.32239 206 234 250
2.41871 -4.34574 9.32239 206 234 250
2.62054 -0.70096 8.39369 55 78 96
2.25432 -0.68447 8.23892 54 77 95
1.11267 -4.02624 9.66924 199 231 250
2.89592 -3.99983 9.63983 197 228 246
-0.116429 0.222512 -1.49684 193 224 243
-0.11639 0.222927 -1.49758 205 234 251
-0.11639 0.222927 -1.49758 205 234 251
-0.115639 0.222028 -1.49535 191 224 246
-0.115639 0.222028 -1.49535 190 224 246
2.11348 -3.87612 9.70777 199 229 248
-2.90736 -3.55581 10.0554 42 158 252
-1.36083 -4.78898 9.01717 194 224 244
-1.36083 -4.78898 9.01717 194 224 244
-0.41272 -4.93466 9.02151 192 222 242
2.95488 -1.70594 9.69606 91 126 162
2.95488 -1.70594 9.69606 91 126 162
1.76937 -4.46529 9.03572 185 216 235
1.76937 -4.46529 9.03572 185 216 235
-0.721239 -2.40749 11.0726 46 69 92
2.93649 -4.17297 9.6852 199 228 247
2.93649 -4.17297 9.6852 199 228 247
2.33982 -3.96183 9.53151 200 230 248
-1.21428 -3.8749 9.85266 185 218 239
-1.21428 -3.8749 9.85266 185 218 239
2.26448 -3.64516 9.69806 169 205 227
-0.11645 0.222489 -1.4968 191 222 241
-0.11645 0.222489 -1.4968 191 223 242
2.66375 -1.34773 9.2695 59 85 107
2.66375 -1.34773 9.2695 59 85 107
-1.43377 -4.25183 9.23171 187 219 239
-1.43377 -4.25183 9.23171 187 219 239
-2.64517 -0.599678 7.9772 51 70 87
-2.64517 -0.599678 7.9772 51 70 87
2.49537 -1.34606 9.26477 59 84 107
2.49431 -1.34533 9.25989 59 84 107
1.12884 -4.81642 8.75857 196 225 243
1.12884 -4.81642 8.75857 196 225 243
1.4589 -4.05472 9.52749 176 209 231
1.4589 -4.05472 9.52749 176 209 231
1.66823 -3.79972 9.91009 197 228 248
1.66823 -3.79972 9.91009 197 228 248
2.16415 -4.79242 9.06363 189 222 241
2.15252 -4.76818 9.01127 188 222 241
-2.11961 -4.49776 9.46626 184 215 236
2.04817 -3.90908 10.218 197 228 247
2.23675 -3.76075 9.80046 195 227 246
2.0944 -3.90627 9.57349 177 210 231
-3.02785 -3.51727 10.1859 36 146 250
2.14521 -3.84322 10.046 195 227 247
1.91209 -1.85707 9.95986 57 83 107
-1.03241 -4.55938 9.2518 188 219 239
1.43025 -3.97494 9.9612 199 230 250
1.42907 -3.97161 9.95404 200 230 250
2.5777 -1.47994 9.3174 91 125 158
2.5777 -1.47994 9.3174 91 125 158
-1.66353 -4.38103 9.52603 188 218 239
-1.65981 -4.36971 9.49857 188 219 239
-2.1542 -3.87005 9.74998 181 214 236
-2.23956 -4.52596 9.69431 204 233 252
-3.49688 -3.4718 9.96003 115 190 240
-1.9624 -4.93803 8.97722 192 223 242
1.01693 -3.91773 9.99511 180 212 233
2.95903 -3.88728 9.7619 193 225 245
2.89298 -1.50922 9.47056 76 111 147
0.871644 -5.03071 8.99096 212 240 255
1.42928 -1.50465 9.24245 54 80 102
-0.334252 -2.47894 10.8968 228 149 112
0.765423 -3.84301 9.7854 182 215 235
0.767192 -3.8507 9.80684 181 214 235
0.765293 -3.84608 9.78742 177 213 234
3.05826 -1.96475 10.0124 33 57 82
-2.83965 -3.61631 9.94296 187 218 234
-1.4736 -4.59314 9.26623 192 223 242
-0.0926662 -3.99695 9.73947 184 216 237
-0.0926662 -3.99695 9.73947 184 216 237
0.739224 -4.52711 9.18572 194 224 243
2.04628 -3.96615 9.75652 176 209 229
-0.59977 -4.95129 9.03422 197 227 246
-0.59977 -4.95129 9.03422 197 226 245
-3.72675 -3.4491 9.85896 105 183 185
2.49058 -4.00103 9.64741 197 228 246
2.48688 -3.99405 9.62329 199 228 246
1.13623 -3.81747 9.71057 181 215 236
-0.116306 0.222791 -1.49728 171 206 227
-2.1753 -4.96311 9.40994 190 222 241
-2.1753 -4.96311 9.40994 190 222 241
3.0067 -1.35409 9.28551 57 81 104
0.808814 -3.85833 10.0443 198 229 250
0.809872 -4.08894 9.63252 182 214 234
0.810593 -4.09347 9.64265 181 214 234
-0.116411 0.222963 -1.49765 202 232 250
-0.116411 0.222963 -1.49765 202 232 250
2.83408 -1.35634 9.30728 58 82 105
2.1816 -1.85999 9.94931 57 83 107
2.1816 -1.85999 9.94931 57 83 107
2.4413 -0.916699 8.61216 51 72 90
2.44946 -0.919611 8.64412 54 75 95
-1.68198 -3.96961 9.65105 184 216 237
-0.751754 -4.23477 9.54358 187 218 238
-0.751754 -4.23477 9.54358 187 218 238
-0.170559 -4.57817 9.27611 195 226 244
-0.170559 -4.57817 9.27611 195 226 244
2.53816 -5.05183 8.91022 178 210 229
-1.32488 -3.52341 10.1813 177 199 242
-0.723751 -4.59011 9.30456 192 222 242
-0.723751 -4.59011 9.30456 192 222 242
2.89087 -1.89407 10.0948 56 81 107
-2.78854 -3.49592 10.0058 176 208 228
1.36669 -1.81701 9.75864 57 84 107
1.37908 -1.8314 9.83751 56 83 107
-0.295821 -4.38537 9.58552 186 217 236
-0.295821 -4.38537 9.58552 186 217 236
-3.60682 -3.45289 9.76635 39 153 151
-1.34593 -4.49078 9.44312 189 220 240
-1.34019 -4.46993 9.39843 189 220 240
1.66849 -4.1065 10.1065 178 210 230
1.67378 -4.11747 10.1365 179 211 231
-3.05485 -3.43178 9.82733 81 175 255
2.60417 -1.70406 9.67064 89 123 157
3.31 -1.11075 8.63294 50 70 90
3.31 -1.11075 8.63294 50 70 90
-0.778124 -4.42278 9.28997 188 218 238
-0.778124 -4.42278 9.28997 188 218 238
1.83649 -1.32463 9.04441 53 76 97
1.2445 -4.36271 9.18078 182 213 232
1.2445 -4.36271 9.18078 182 213 232
2.49113 -1.57344 9.5281 57 81 104
2.49113 -1.57344 9.5281 57 81 104
3.44133 -1.5915 9.50474 50 72 93
3.40605 -1.35455 9.14054 49 71 93
-0.116324 0.222814 -1.49736 180 214 235
2.88817 -4.82683 9.10448 177 208 226
-0.494055 -3.54093 10.2218 108 192 255
2.58186 -4.39049 9.2418 176 209 228
-4.06167 -1.68216 9.16517 82 109 136
-3.85584 -3.48956 9.94819 99 185 178
-0.116507 0.222492 -1.49683 193 225 244
-0.116354 0.22283 -1.49741 182 214 232
-2.87277 -3.58513 9.77796 151 192 217
-1.60291 -4.81664 9.09764 190 220 238
-1.6018 -4.81226 9.08832 190 220 238
-0.116184 0.222561 -1.49678 174 208 228
-0.562095 -2.61402 10.8336 154 149 160
-0.562095 -2.61402 10.8336 154 149 160
2.98177 -1.7977 9.85629 43 72 98
3.12066 -3.65682 9.75134 161 196 218
3.18461 -3.83107 9.82938 165 201 222
2.81806 -1.50682 9.42588 27 49 72
-0.116193 0.222386 -1.49651 184 215 233
-0.116813 0.222412 -1.49657 147 195 229
2.6233 -1.70017 9.56218 85 120 154
-2.80103 -0.982315 8.65047 88 120 151
-0.116336 0.222844 -1.49738 173 207 227
-0.116336 0.222844 -1.49738 173 207 227
3.2589 -0.76732 8.39704 73 95 120
3.28177 -1.37138 9.00101 67 93 121
3.30615 -1.29646 9.11847 107 136 168
-0.116465 0.22217 -1.49628 193 223 242
-1.60049 -4.22617 9.56833 187 217 235
2.96966 -1.42227 9.32692 29 55 79
2.71547 -1.96773 10.1368 36 64 91
-1.3908 -3.4943 10.1034 49 125 223
2.53604 -1.0613 8.75496 108 135 165
-2.9492 -3.58848 9.90044 171 210 241
3.31194 -1.51902 9.41445 95 122 152
2.87158 -1.42233 9.32312 30 55 78
-0.116754 0.222428 -1.49666 152 199 231
2.16555 -1.49194 9.34182 83 114 147
-0.116397 0.222927 -1.49759 185 219 238
1.40562 -1.68923 9.54956 96 130 163
-0.116963 0.222115 -1.49609 150 196 229
1.53488 -1.45696 9.21493 74 104 132
-2.928 -3.6039 9.76843 182 216 235
-3.36652 -3.44408 9.72169 42 153 247
2.92535 -1.76496 9.88996 78 108 140
2.51066 -0.84424 8.42673 115 145 174
2.56124 -1.94162 10.0318 39 66 92
1.51523 -1.68336 9.54217 80 112 145
2.06702 -4.01416 9.43707 176 208 227
3.30123 -1.53099 9.53201 23 43 63
-4.07073 -2.73152 10.2765 95 128 155
-0.495019 -2.62004 10.9005 163 145 152
-0.488024 -2.5729 10.696 161 142 145
3.26137 -1.07405 8.76927 100 125 154
2.70667 -5.0281 8.84264 173 207 226
2.5362 -1.72319 9.69477 81 112 144
-0.116938 0.222153 -1.49614 151 198 230
3.27372 -1.18962 8.94569 83 107 132
-3.9262 -4.97242 8.69063 151 197 229
-3.48105 -0.433744 8.429 99 104 115
-2.9594 -4.04023 9.65683 165 197 213
-4.33698 -0.112637 7.88636 37 59 82
-0.116373 0.222891 -1.49752 201 232 251
-0.116459 0.222916 -1.49757 138 187 221
1.71383 -1.6815 9.53327 81 111 142
-2.98034 -3.66138 9.81354 153 194 224
-0.00859783 -3.61283 10.0679 175 214 243
-0.116571 0.22275 -1.49725 145 191 224
0.336698 -3.66893 10.1078 181 214 233
-3.03799 -4.28883 9.56588 155 195 227
3.32791 -1.66254 9.63892 31 55 79
-3.98865 -3.50058 10.0665 106 170 142
0.915746 -3.62007 10.1268 176 216 245
2.53445 -1.49946 9.37993 84 114 145
-0.11631 0.222641 -1.49706 182 214 233
1.67072 -0.829806 8.32769 81 110 135
1.52046 -1.37137 9.0373 76 104 133
-1.80242 -5.07967 8.91876 189 218 236
-0.116668 0.222613 -1.49699 144 192 226
2.79629 -4.94 8.94674 199 230 249
2.13411 -1.49011 9.42161 24 45 65
1.77361 -4.05883 9.64543 185 214 232
-0.436694 -2.59509 10.7721 165 127 136
-0.436988 -2.59698 10.7799 166 127 136
-0.116376 0.222479 -1.49676 190 220 237
-0.116499 0.222858 -1.49746 138 185 220
-0.116499 0.222858 -1.49746 138 185 220
-2.20696 -4.89033 9.20181 190 218 236
-2.20807 -4.8934 9.20797 190 218 236
2.85293 -1.46097 9.35063 84 115 148
-0.116294 0.222803 -1.4973 190 224 245
-0.11643 0.222752 -1.49729 192 221 238
-0.11643 0.222752 -1.49729 193 221 238
-2.29177 -4.22892 9.52745 180 210 229
-2.29018 -4.22515 9.51755 181 211 230
-0.11637 0.222665 -1.4971 187 217 234
-0.360044 -2.72971 10.4705 165 158 169
2.33875 -4.88544 8.72773 207 235 252
2.31066 -4.82418 8.60525 207 235 251
1.78838 -3.81512 14.4057 47 81 118
0.767109 -3.17986 11.372 48 79 111
-0.11641 0.22296 -1.49765 208 236 252
-0.11641 0.22296 -1.49765 208 236 252
-0.226307 -2.62948 9.74744 55 72 104
-2.33625 -3.44357 9.90219 74 168 252
2.31614 -1.33806 9.21599 57 82 104
-1.4806 -3.93674 9.57872 182 216 237
-1.4806 -3.93674 9.57872 182 216 237
0.93966 -3.98417 9.97504 201 231 251
1.20131 -3.62284 10.1062 191 221 241
2.24076 -4.33081 9.48352 185 216 234
2.24076 -4.33081 9.48352 185 216 234
1.01168 -3.89809 9.94294 180 212 233
-1.88904 -4.75033 9.28601 191 222 242
1.66895 -4.12862 9.74755 189 219 238
0.809515 -3.86078 10.0513 198 229 250
2.1009 -3.91628 9.60149 180 211 231
1.60819 -3.92313 9.38061 201 230 249
2.72477 -1.88744 10.0207 59 85 110
-1.61971 -4.9904 8.78781 189 220 239
-1.61971 -4.9904 8.78781 189 220 239
2.70455 -3.89019 9.57443 174 204 224
3.41444 -1.78511 9.96841 92 125 159
0.322902 -4.23822 9.63087 185 216 235
-1.60252 -4.23189 9.58342 186 216 235
3.25296 -0.962861 8.54424 75 99 127
2.91938 -1.43904 9.33566 72 105 142
2.58324 -2.03645 10.1767 81 113 148
-4.20598 -2.02115 9.54454 77 106 134
3.31825 -1.0005 8.85855 75 98 126
-1.81016 -2.71394 10.4516 111 154 189
-1.8267 -2.75719 10.4789 60 101 136
-1.79229 -5.04849 8.85368 191 219 237
-0.431477 0.24198 -1.41826 199 128 73
-4.54592 -0.876697 8.47563 44 63 86
-4.0463 -1.43702 9.14292 45 70 96
2.10754 -3.87324 9.07669 179 212 232
2.10754 -3.87324 9.07669 179 212 232
-0.454015 2.10021 4.02694 87 93 104
-0.632211 -4.30736 9.34259 190 220 240
2.58469 -3.99368 9.39719 176 209 229
2.58469 -3.99368 9.39719 176 209 229
2.08267 -4.62146 9.39765 190 221 238
2.09036 -4.63745 9.43637 190 220 238
-4.61798 -0.954488 8.39013 21 39 57
-2.25963 -4.43157 9.28486 188 219 239
-2.26537 -4.44338 9.31225 189 220 239
0.839229 -4.4414 9.34149 184 215 234
0.839229 -4.4414 9.34149 184 215 234
1.2253 -1.82003 9.7994 59 85 109
-1.47454 -4.59642 9.27841 194 224 243
-2.14936 -3.85814 9.7169 181 215 236
0.728889 -4.47476 9.06681 194 224 243
-2.28902 -4.7039 9.18923 194 224 243
-2.28902 -4.7039 9.18923 194 224 243
1.86038 -4.17663 9.49133 184 215 233
1.86038 -4.17663 9.49133 184 215 233
0.184629 -4.63766 9.02746 193 224 243
0.184945 -4.64018 9.03312 194 224 243
2.2502 -4.24771 14.7729 39 73 114
-1.86387 -3.76802 9.51667 185 218 238
-1.86387 -3.76802 9.51667 185 218 238
-5.0386 -3.40652 11.1435 40 88 157
1.41075 -4.85781 8.86101 189 217 236
2.97762 -3.76484 9.82659 193 225 245
2.97762 -3.76484 9.82659 193 225 245
-0.492475 -4.09765 9.64176 187 220 240
-0.493266 -4.10672 9.66551 188 220 240
1.45115 -3.85835 9.87225 176 209 229
-0.00691428 -3.90527 9.5429 186 217 237
2.60697 -1.70601 9.67602 89 124 158
0.491828 -4.11498 9.71024 189 219 238
0.491828 -4.11498 9.71024 189 219 238
-4.59481 -0.963268 8.20679 60 82 108
-0.431121 0.242515 -1.42103 213 148 87
-1.40749 -4.23439 9.57277 182 214 235
-1.41675 -4.26716 9.65453 185 216 237
2.82125 -1.57779 9.55135 58 82 107
1.92378 -3.79824 9.70405 172 205 226
-1.21599 -3.52379 10.1566 103 169 249
-0.421883 1.79367 3.52254 154 116 81
2.55561 -3.74117 9.56696 170 203 223
2.55659 -3.74272 9.57104 170 203 223
-0.436615 0.221384 -1.3597 156 142 139
-0.542638 -1.62756 9.44168 102 128 154
-3.63931 -3.57859 9.99663 75 161 249
2.51349 -1.51976 9.48683 26 48 71
-2.3509 -2.44344 10.2824 63 103 130
3.10934 -4.19022 9.54409 167 201 222
3.17513 -0.792666 8.26778 21 41 61
-2.94556 -4.01422 9.49586 188 218 237
-0.433933 0.172123 -0.961314 34 127 179
2.87771 -4.39984 9.23499 181 211 229
-0.224227 -1.66103 9.5849 79 103 129
2.9301 -4.02892 9.46596 172 203 223
2.73084 -4.91837 8.9056 198 229 248
3.5281 -4.06203 9.56509 163 196 219
-2.14364 -2.81438 10.2475 175 221 250
0.910146 -4.9906 9.28303 213 239 254
1.9977 -2.12176 10.4168 42 69 94
1.79961 -4.06143 9.5478 190 220 239
1.79879 -4.0596 9.54305 190 220 239
2.53286 -1.8789 10.0251 57 83 108
-2.04338 -2.76968 10.5233 116 163 198
-1.81327 -2.71937 10.4728 110 152 186
2.87036 -1.69532 9.67929 34 57 81
-0.180423 -3.16095 10.855 50 98 158
-4.59552 -1.69164 9.22532 22 42 62
2.42032 -1.65279 9.56623 27 49 70
2.48087 -4.69429 9.02454 211 236 250
0.789139 -4.41388 9.09376 209 237 254
2.65544 -3.90614 9.80853 199 227 245
3.11113 -4.25047 9.4875 199 229 248
-4.79781 -2.5697 9.88928 22 43 67
-1.38592 -4.08516 9.57815 193 223 242
3.20441 -0.70025 8.38488 51 71 90
2.39706 -3.93638 9.66399 183 214 232
2.39334 -3.93186 9.65088 182 213 232
2.53286 -1.8789 10.0251 57 83 108
1.48046 -4.31045 9.01408 204 234 251
-2.09741 -4.1019 9.62898 185 217 236
-2.09741 -4.1019 9.62898 185 217 236
3.31478 -1.62235 9.69521 50 73 96
-4.06039 -1.52994 9.16845 108 140 165
-4.06039 -1.52994 9.16845 108 140 165
1.4081 -4.66568 9.12649 212 238 253
2.67097 -2.10207 10.2767 45 76 107
2.59999 -0.85407 8.54046 25 47 67
-4.44202 -0.138294 7.87828 39 62 89
3.27765 -1.19033 8.95714 85 109 134
1.9976 -4.52058 9.14216 185 215 234
-2.99347 -4.24492 9.61162 173 202 218
-0.116404 0.22296 -1.49764 166 199 221
-0.686104 -0.358651 2.65285 107 102 87
3.54262 -2.03444 10.0389 34 59 85
1.79822 -4.21019 9.36597 205 233 251
2.28898 -4.12772 9.56224 206 233 249
2.28898 -4.12772 9.56224 206 233 249
1.35389 -4.44421 8.98097 199 226 243
0.98094 -4.17115 9.44069 189 220 239
0.98094 -4.17115 9.44069 189 220 239
-2.23902 -4.52436 9.69059 206 234 253
1.9121 -4.21826 8.83393 192 221 238
-0.0656371 -4.5717 9.24996 194 225 244
-0.0656371 -4.5717 9.24996 194 225 244
0.743521 -4.14413 9.37711 193 222 241
0.746197 -4.15534 9.40465 192 222 241
-3.53498 -1.59797 9.22218 100 131 158
-1.95513 -4.37115 9.47736 190 220 240
2.3742 -3.7749 9.64392 176 210 230
2.38082 -3.78513 9.6725 176 210 230
-0.82475 -4.55923 9.19627 194 224 243
2.95328 -4.18193 9.51946 181 213 233
2.95328 -4.18193 9.51946 181 213 233
2.1665 -3.81171 9.78284 173 206 226
2.25591 -4.41554 9.29815 189 219 237
-0.209933 -4.14972 9.37808 197 225 243
-0.209933 -4.14972 9.37808 197 225 243
0.821853 -3.91762 9.5655 187 217 237
0.0543297 -4.61877 9.02485 196 225 242
3.25258 -1.14674 9.03223 52 71 92
3.3029 -1.16628 9.18563 52 71 93
3.25729 -0.86363 8.50642 108 138 169
2.61787 -0.917993 8.58471 54 78 99
3.32888 -3.80962 9.79525 166 201 224
2.85867 -4.2109 9.52567 173 205 224
2.96981 -4.47871 9.10479 174 206 226
-3.96666 -0.307895 8.03933 63 81 100
1.77861 -4.44107 9.29919 182 212 230
1.69725 -1.74335 9.65404 44 75 103
-4.51016 -0.150489 8.04482 40 63 90
2.47057 -4.32158 9.07849 177 208 226
1.67789 -4.35459 9.47157 187 215 232
-0.640678 -2.24069 10.8778 63 82 104
1.81223 -4.54417 8.83908 189 218 235
0.182918 -4.40174 9.27171 186 215 231
2.60087 -4.63536 9.08066 203 231 249
-0.116412 0.222956 -1.49764 203 232 250
-0.116412 0.222956 -1.49764 204 233 250
-1.95811 -2.79955 10.4272 161 207 240
2.38684 -3.78076 9.87784 193 225 244
-1.67864 -3.96177 9.62777 182 215 236
-2.10182 -2.65588 10.0093 164 211 243
-1.77067 -2.60815 10.4599 46 84 118
2.53819 -1.67588 9.62401 29 55 80
1.9729 -0.66179 8.3266 29 47 65
2.3521 -0.768073 8.27368 19 35 50
2.69695 -3.90367 9.39904 203 230 245
-0.651422 -4.11299 9.85668 205 233 251
1.62157 -0.84135 8.30184 68 100 131
1.62157 -0.84135 8.30184 68 100 131
1.55097 -0.670076 8.17284 54 78 97
0.981776 -0.633199 8.07693 57 81 101
-2.61868 -3.53112 9.67792 193 221 236
-0.116406 0.222963 -1.49764 183 219 243
-0.116406 0.222963 -1.49764 184 219 242
-4.13651 -0.139304 7.84107 59 79 103
1.82547 -0.905051 8.5349 58 82 102
1.83319 -0.909703 8.57502 59 82 102
3.30274 -1.96543 10.189 70 107 132
1.45477 -3.86604 9.89409 175 208 229
0.793432 -1.97131 9.95635 77 105 133
1.85237 -4.1284 9.30273 184 213 231
-2.31029 -2.5547 10.3088 124 167 197
1.16867 -3.63202 10.1703 178 216 243
-0.20563 -2.77061 11.6671 52 73 96
-3.39335 -3.43017 9.81044 50 145 235
-4.14785 -0.807684 8.18297 19 32 44
2.32475 -4.51491 9.15244 188 220 237
2.32475 -4.51491 9.15244 188 220 237
-0.342055 -4.75463 8.97363 196 225 242
-0.342055 -4.75463 8.97363 196 225 242
-0.116544 0.222801 -1.49734 149 197 230
3.10635 -4.18677 9.53288 165 200 222
2.94512 -3.71337 9.83582 165 200 221
2.03466 -4.09878 9.26001 186 214 232
2.56187 -4.27943 8.93599 172 205 225
3.06004 -4.0922 9.63131 172 205 225
1.99436 -3.78535 9.70316 174 205 224
1.10757 -3.61615 9.94258 159 198 205
-2.07282 -2.63421 10.2323 108 156 190
1.85602 -3.78922 13.0025 49 95 156
2.7768 -4.61676 9.38097 184 215 233
2.7768 -4.61676 9.38097 184 215 233
0.822396 -4.23997 9.60634 186 218 237
-1.94459 -4.34401 9.41873 191 219 239
-0.825672 -4.56439 9.20626 195 224 244
2.254 -4.4121 9.2904 189 219 237
-1.50917 -4.27857 9.66638 192 220 239
2.30169 -1.49669 9.35488 83 114 146
-2.27723 -2.68964 10.401 197 240 255
1.17769 -0.764745 8.16988 24 45 65
2.90576 -4.42274 9.66699 177 208 227
-1.26166 -2.92916 12.5001 59 86 115
-1.43795 -3.37181 12.8921 35 60 93
1.2089 -3.85608 10.0471 193 226 248
-1.81767 -2.65539 10.4719 127 169 206
-0.50959 -3.55327 10.0445 76 171 247
1.85221 -1.12881 8.89089 59 83 104
0.754928 -3.98691 9.77444 179 212 231
0.753926 -3.98344 9.76495 177 212 231
2.77583 -4.73515 9.10749 207 234 250
2.77583 -4.73515 9.10749 207 234 250
1.4555 -0.853381 8.25711 57 82 103
1.45561 -0.853543 8.25842 57 82 103
2.23957 -4.2285 14.7153 39 73 113
1.16376 -1.09844 8.67809 28 53 74
1.37193 -1.22107 8.7333 83 115 148
1.3861 -0.821059 8.24555 24 45 65
1.28282 -1.24696 8.88402 91 124 157
-0.654178 -1.99687 10.1996 77 103 126
-0.108951 -0.23612 1.35819 34 55 76
-2.18316 -1.56577 9.539 80 108 136
3.43533 -4.13977 9.78764 163 198 221
2.72803 -4.78574 9.20717 206 234 250
2.72803 -4.78574 9.20717 206 234 250
2.94294 -4.05914 9.59483 182 214 234
1.57946 -3.74944 9.9854 182 214 234
1.41587 -4.87226 8.88867 189 217 236
3.41701 -1.57953 9.43367 52 77 99
-2.77851 -1.6106 9.41383 62 85 109
3.4077 -1.46098 9.59357 67 91 120
2.93575 -3.70362 9.80407 166 200 221
-2.36267 -2.43281 10.133 108 148 176
-0.461614 -4.43193 8.75347 215 241 255
3.13288 -4.01079 9.47382 178 210 231
-1.96831 -2.54548 10.3406 161 201 230
3.31425 -1.1793 8.90149 28 49 69
-2.31271 -2.63892 10.3339 128 172 206
1.37431 -4.43997 8.9452 186 215 233
3.02977 -4.51764 9.17849 194 227 247
-4.42224 -0.738112 8.6133 58 81 106
-4.40146 -0.7324 8.56177 60 84 109
1.08652 -0.739 8.21522 23 41 58
1.46766 -0.739135 8.10251 22 40 56
2.74228 -4.53906 9.39683 209 235 250
2.74228 -4.53906 9.39683 209 235 250
1.37066 -0.653342 8.05506 55 80 100
1.1402 -0.642832 8.07831 58 82 102
0.981776 -0.633199 8.07693 57 82 102
1.06797 -0.865667 8.35242 61 86 107
0.0440069 -4.8473 9.16523 192 223 243
1.18328 -0.818112 8.24123 79 112 142
1.86013 -1.1336 8.92747 60 85 107
2.74266 -4.15281 9.38319 172 204 224
-1.96739 -2.54499 10.3359 160 200 230
1.81384 -1.10031 8.6816 54 72 89
-1.87104 -2.43874 10.3909 105 143 174
-1.78445 -2.423 10.6139 84 116 150
-1.76428 -2.4908 10.4958 60 99 134
1.3015 -1.39355 9.0628 26 47 67
1.3015 -1.39355 9.0628 26 47 67
1.03319 -1.80117 9.688 57 83 107
3.39408 -1.66595 9.956 54 76 101
2.7507 -1.85861 9.87075 28 51 73
1.41421 -1.3139 8.99693 27 50 71
1.03141 -1.71134 9.5563 33 59 82
1.06554 -1.5714 9.33244 96 127 157
1.3477 -1.70481 9.51019 30 56 81
1.07797 -1.67933 9.55123 89 119 148
3.39463 -4.44352 10.1359 171 204 226
0.734375 -1.55675 9.25562 72 97 122
0.738724 -1.56597 9.30972 74 100 124
-2.3649 -2.50342 10.0858 144 185 219
1.28515 -3.40484 12.5728 47 82 118
2.61982 -1.43779 9.46338 29 54 77
-2.81658 -0.754797 8.47922 32 53 71
2.69434 -4.22616 9.04121 205 233 250
2.69434 -4.22616 9.04121 205 233 250
2.69168 -1.00066 8.77103 21 42 60
-1.49183 -4.20745 9.49761 192 220 239
-3.71467 -2.11001 9.70216 74 104 133
3.25711 -3.70077 9.92109 164 199 223
2.51555 -1.45046 9.28186 24 50 74
1.94102 -4.75878 8.99292 191 218 234
0.959872 -0.80997 8.19646 27 47 66
-0.716764 -4.13589 9.71491 185 217 237
0.816207 -3.89657 9.50987 187 217 237
-4.09405 -0.176236 7.88666 38 59 81
3.35453 -1.49257 9.53474 21 44 67
1.02261 -0.963372 8.61825 25 45 63
0.755278 -0.631438 8.19486 58 83 104
0.990026 -1.05472 8.54578 58 84 105
-4.72379 -1.00545 8.36218 27 48 71
0.937066 -0.894903 8.49267 57 82 103
0.782025 -0.940734 8.49262 77 105 133
0.783146 -0.942206 8.50296 77 107 136
0.788873 -0.896631 8.25517 35 60 83
2.14756 -4.78873 9.08917 176 208 229
-0.146692 -4.36037 9.13726 198 228 244
-1.19415 -4.18249 9.45896 191 220 240
-1.19415 -4.18249 9.45896 191 220 240
-2.66039 -1.13643 8.89572 31 55 78
-1.907 -2.47624 10.293 100 133 151
-2.71031 -0.985664 8.67275 88 119 151
-1.7598 -2.6155 10.9819 44 66 94
-1.84674 -2.53366 10.7724 91 127 163
0.143703 -0.23457 0.911018 35 61 88
-3.72543 -1.43624 8.98077 42 69 94
0.889624 -1.79906 9.71801 58 85 109
0.710637 -1.80368 9.74681 57 83 107
-0.308582 0.142156 -0.544793 27 50 72
1.5871 -1.68674 9.56827 83 117 151
1.03141 -1.71017 9.54911 33 59 82
1.2458 -1.25217 8.95519 27 50 72
1.06623 -1.57262 9.33874 97 128 157
3.1577 -4.01509 9.45944 175 207 227
1.61396 -4.8054 9.04606 187 217 233
-2.41765 -0.817849 8.34034 61 83 101
1.50323 -1.32513 9.10125 57 83 107
1.52836 -1.34786 9.25486 57 83 107
2.99277 -3.69742 9.78443 167 202 223
2.85923 -4.37091 9.16786 184 213 231
-2.25607 -2.38128 10.2084 135 174 197
2.00163 -0.678668 8.24978 20 38 55
-2.14799 -2.53196 10.3105 101 151 181
1.04842 -0.98876 8.85008 26 45 63
-4.69002 -0.897808 8.27249 57 81 108
0.754172 -0.889707 8.5812 59 83 105
1.22277 -1.01512 8.72832 26 51 77
-1.76002 -2.60768 10.821 78 112 145
0.519799 -1.12996 8.59623 27 46 66
0.528903 -1.14195 8.71614 27 46 64
0.751008 -0.627619 8.15596 60 85 106
0.594303 -0.620795 8.14485 54 78 99
0.689341 -1.07383 8.74241 56 83 105
0.791228 -1.49971 9.31171 56 83 107
1.02896 -1.79418 9.64893 57 83 107
0.620776 -0.897146 8.6082 59 82 103
0.82993 -0.767324 8.16381 132 178 218
0.674651 -0.875555 8.4208 28 47 67
0.801375 -1.02457 8.61041 104 135 166
0.800721 -1.0239 8.60371 107 140 171
0.800721 -1.0239 8.60371 107 140 171
0.754836 -0.990463 8.54292 29 54 77
0.684188 -1.50693 9.25693 53 76 100
0.476802 -1.02321 8.65864 98 127 154
0.428636 -1.03658 8.73468 31 56 79
0.625372 -1.1526 8.7949 56 82 105
1.02728 -1.53902 9.43554 55 81 105
0.627417 -1.22854 8.88638 50 75 99
0.625728 -1.2253 8.86363 50 75 98
0.385577 -0.814125 8.33363 98 131 164
2.64146 -1.99375 10.0983 79 113 148
-2.41382 -0.641188 8.16125 24 38 52
-2.49076 -0.604353 8.12905 48 67 85
1.22542 -3.90541 10.1896 196 227 247
2.62996 -1.43314 9.33304 29 53 75
1.45285 -4.23637 9.25484 183 215 235
1.46454 -4.26555 9.32208 184 216 235
-1.80924 -2.27879 10.585 43 63 88
2.33424 -0.910429 8.53317 20 38 55
0.441105 -0.207754 1.49577 28 49 69
0.441105 -0.207754 1.49577 28 49 69
-4.49265 -0.822593 8.5768 52 73 96
1.20603 -1.03252 8.60142 97 130 162
-0.908188 -4.11663 9.69128 180 212 234
2.21223 -4.2767 9.69882 180 212 230
1.29923 -4.01503 9.63204 208 236 251
2.72193 -3.8358 9.7818 176 208 229
0.00572389 -4.3138 9.79622 189 220 240
0.00572389 -4.3138 9.79622 189 220 240
1.86173 -1.54564 9.37398 57 81 103
3.21089 -4.5736 9.26586 175 206 227
0.509496 -1.06907 8.597 31 53 72
1.35166 -1.53263 9.32896 55 80 102
1.36757 -1.54922 9.42346 55 79 102
0.130651 -0.0293187 1.5248 27 44 60
0.779954 -0.792158 8.03345 25 50 73
0.94005 -1.94037 9.77344 41 65 89
1.28713 -1.96223 9.84543 42 67 92
-0.378681 0.331611 -0.86399 79 55 41
0.490729 -1.5749 9.2177 33 55 76
-2.75644 -1.37327 9.10476 91 129 163
-2.76258 -1.37704 9.12982 92 130 164
-2.43773 -1.73625 9.61429 50 75 99
-2.609 -1.72904 9.60349 55 79 101
-2.58217 -1.70775 9.48125 54 77 99
-2.55667 -1.09943 9.01771 48 69 89
-2.51407 -1.27351 9.14533 49 69 89
-2.62344 -1.44497 9.14863 48 69 89
-2.61087 -1.43638 9.09559 49 71 92
0.753296 -0.88897 8.57511 59 84 106
1.33331 -0.879011 8.40354 54 78 100
0.95288 -1.1629 8.78143 71 96 119
-2.15001 -0.616236 8.41438 51 68 84
-2.19691 -0.727355 7.81925 34 54 73
0.910599 -1.83668 9.92641 57 83 103
0.707937 -1.79702 9.71289 56 82 105
2.92694 -1.95005 10.0451 37 62 85
-2.21485 -4.9076 9.23617 194 220 236
1.92476 -4.24565 8.89858 191 221 238
-3.80501 -1.56447 9.21173 88 121 149
1.29925 -0.78268 8.35403 31 50 67
1.29925 -0.78268 8.35403 31 50 67
-2.26825 -3.83973 9.72986 188 219 239
-2.26825 -3.83973 9.72986 188 219 239
-4.04374 -0.184392 7.8679 58 76 97
-4.90494 -1.25415 8.79439 44 65 89
-4.96163 -1.27307 8.92264 42 63 87
2.35016 -1.09605 8.29632 29 51 72
0.961058 -1.38474 8.9513 29 52 72
0.709811 -1.30928 9.03528 58 83 106
0.516001 -1.43991 9.16461 36 60 83
-2.48993 -1.55189 9.46184 88 116 143
-2.42185 -0.545989 8.15938 30 43 59
-2.47145 -0.849534 8.61783 48 68 87
-2.45073 -0.840491 8.52763 46 66 85
-2.71198 -1.16781 8.85561 85 123 159
2.40373 -4.2328 9.25578 183 215 234
2.40373 -4.2328 9.25578 183 215 234
-2.50907 -1.27005 9.12315 50 70 90
-2.36947 -1.25537 9.0961 50 71 91
-2.36947 -1.25537 9.0961 50 71 91
-2.6482 -0.993447 8.62818 31 51 72
-2.40306 -1.53739 9.2176 27 52 76
-0.941491 -4.17303 9.58875 206 234 252
-0.110608 0.208442 -1.46771 208 236 254
2.20305 -0.608014 8.13182 25 45 60
-3.74475 -0.152261 8.26413 84 84 89
-0.116398 0.222937 -1.4976 184 216 233
1.00658 -4.01276 9.62496 209 235 251
3.08755 -1.91757 10.1477 56 82 107
-0.365341 -4.09942 9.61229 184 217 237
-0.365341 -4.09942 9.61229 184 217 237
-3.95391 -3.51877 9.94247 89 165 142
-2.11734 -2.25177 10.3881 43 78 107
-1.97115 -2.20117 10.2434 119 153 180
1.502 -3.7307 13.4409 40 81 130
-4.24243 -4.966 9.26927 68 115 167
3.23722 -1.4848 9.28384 23 45 64
-0.296806 -3.41583 9.88855 79 177 255
-0.494939 -2.80378 10.704 80 86 119
0.117739 -4.78991 9.21898 210 238 255
-0.116333 0.222764 -1.49729 209 238 255
-0.116421 0.222926 -1.49758 191 223 242
-0.116328 0.222688 -1.49713 183 215 234
-0.116366 0.222789 -1.49736 181 213 232
-0.116383 0.222764 -1.4973 193 223 241
-0.116402 0.222638 -1.49707 195 224 241
-0.116354 0.222694 -1.49719 189 218 235
-0.116235 0.222674 -1.49702 174 207 227
-0.116235 0.222674 -1.49702 174 207 227
-0.116392 0.222802 -1.49737 194 222 238
-0.116311 0.222756 -1.49726 174 207 226
-0.116353 0.222867 -1.49745 175 208 226
-0.116356 0.222796 -1.49732 182 214 232
-0.116356 0.222796 -1.49732 182 214 232
-0.116354 0.22283 -1.49741 182 215 233
-0.116378 0.222799 -1.49735 197 225 241
-0.116378 0.222799 -1.49735 197 225 241
-0.116413 0.222963 -1.49765 189 220 237
-0.116413 0.222963 -1.49765 189 220 237
-0.116668 0.222613 -1.49699 144 193 227
-0.116317 0.222814 -1.49733 177 211 230
-0.907387 -4.11267 9.68022 179 212 233
1.60672 -0.792307 8.24395 19 41 61
-2.29193 -2.81189 10.384 128 171 208
1.73015 -1.24646 8.50944 52 72 90
1.86977 -3.90207 9.99366 177 208 228
1.86977 -3.90207 9.99366 177 208 228
-2.00495 -3.87316 9.82916 186 217 237
-4.07003 -4.81377 8.85991 110 165 238
-3.36839 -3.62042 10.4133 90 180 255
1.82059 -1.39521 11.0306 54 74 91
2.97649 -4.33668 9.69093 198 230 248
3.47894 -2.1846 10.7766 37 66 91
3.47894 -2.1846 10.7766 37 66 91
2.79262 -1.60322 9.6946 26 49 72
2.73749 -2.20423 10.7773 46 77 108
-2.26615 -2.5943 10.2654 171 217 247
1.42553 -3.71597 9.89424 184 218 237
-2.12133 -2.25703 10.4121 43 78 107
-1.77895 -2.50101 10.4061 93 134 170
0.0194085 -4.29559 9.35545 197 225 242
-0.360173 0.236393 -1.31543 143 117 101
-0.364201 0.233142 -1.25932 176 156 143
1.52625 -1.37523 9.06374 78 107 136
-0.363386 0.233959 -1.26467 143 118 104
-3.03176 -4.11823 9.68906 155 195 226
1.14855 -1.63068 9.3573 30 51 72
-2.43327 -2.46412 10.5191 101 134 158
2.57519 -1.47039 9.21296 104 140 176
-0.754147 -4.26668 9.62246 187 217 237
-4.07772 -1.25994 8.62716 50 75 102
2.46097 -4.76287 9.00053 172 202 220
-4.16084 -1.93711 9.54322 41 69 95
1.6357 -1.79229 9.83331 37 66 92
1.01251 -1.58401 9.15056 35 66 93
-0.170308 0.226667 -0.428574 178 157 145
-2.04059 -1.99311 9.97602 46 75 103
-0.228555 0.00971473 -0.99377 210 236 251
2.85011 -4.7879 9.00344 173 206 225
0.629626 -1.11729 8.84228 49 76 100
0.126979 -0.0270033 1.47673 24 42 59
0.916612 -1.1911 8.69853 24 50 75
0.614996 -0.891977 8.54828 60 83 103
-2.84837 -0.924146 8.58079 28 46 65
1.6985 -4.70835 8.86981 199 227 243
0.188138 -4.15443 9.39176 192 225 244
0.187312 -4.1487 9.37737 190 224 244
-3.56682 -1.75787 9.28077 82 110 137
1.41983 -1.35661 8.96222 26 48 69
-0.378565 2.34141 1.95478 89 63 42
-0.147513 0.0142295 -0.0742259 96 106 83
-2.76697 -0.756083 8.43242 26 49 69
1.26797 -1.60093 9.29796 32 53 77
-5.05253 -3.21758 10.8175 33 86 156
-2.39027 -0.803964 8.22001 59 83 102
0.359839 -1.07502 8.77186 55 80 102
0.309691 -1.22566 8.9418 90 120 147
-2.63143 -1.18767 8.86365 51 83 111
-4.27923 -0.0854399 7.56255 60 84 111
-2.64625 -1.15234 9.05978 31 55 78
-3.95803 -2.70458 10.0459 68 107 134
1.2222 -0.761163 8.36799 29 51 71
1.2222 -0.761163 8.36799 29 51 71
0.816974 -1.3929 9.11398 30 52 72
-4.32579 -2.89874 11.0995 45 80 115
0.84314 -1.63117 9.43929 33 58 81
0.847585 -1.6393 9.47918 30 55 79
0.35242 -0.617721 8.21703 57 83 103
1.98034 -3.99932 9.82518 185 218 238
-0.146221 0.0356467 -0.0176376 146 128 113
-0.167793 0.06034 0.0412772 95 82 69
0.437734 -4.54642 9.17722 196 226 244
-2.78098 -0.783607 8.43237 89 118 145
-0.486764 0.236401 -0.735655 35 112 173
-0.486764 0.236401 -0.735655 35 111 174
-0.493275 0.234088 -0.726658 31 121 185
-0.493275 0.234088 -0.726658 31 121 185
-0.38428 0.045489 -0.202977 43 66 88
-1.7367 -4.43978 9.29568 191 223 242
-1.7367 -4.43978 9.29568 191 223 242
0.388777 -1.30803 9.08083 49 72 92
-2.59443 -1.68914 9.7993 39 64 87
0.754663 -1.62964 9.29936 71 100 125
-1.1217 -0.392262 2.56416 92 123 153
1.15831 -3.8897 9.91059 177 212 233
0.603009 -0.628605 8.22543 52 75 95
0.131537 -0.881954 8.46299 53 78 101
0.278814 -0.868361 8.51575 58 82 104
0.0395779 -1.08143 8.85995 56 83 103
0.105375 -0.884655 8.5815 56 80 100
0.596812 -1.10574 8.86819 53 80 103
-0.558121 -0.0672973 1.66657 41 127 168
0.159401 -1.01876 8.66115 105 134 161
0.418508 -0.781041 8.26732 21 48 75
1.24799 -4.25438 9.45827 205 234 251
-0.340362 -2.65232 10.7496 222 156 135
-0.435968 0.1682 -0.954889 37 127 184
-1.03581 0.706634 6.59595 194 151 101
-3.13104 -3.58721 10.1202 58 166 247
-0.433524 0.168853 -0.95315 56 84 107
-0.433524 0.168853 -0.95315 56 84 107
-4.25934 -0.128657 8.12808 56 76 100
-0.361163 0.565246 -0.830987 39 53 63
2.52092 -1.98584 10.0381 37 65 92
0.598009 -1.50009 8.8853 32 54 76
0.98278 2.85175 3.26045 65 51 40
0.98278 2.85175 3.26045 65 51 40
3.87464 -0.648187 12.1217 18 33 46
-4.01734 -0.288331 8.08052 39 59 80
-4.10761 -0.300981 8.3037 39 58 78
-0.499726 0.284589 -0.900685 171 129 90
-0.429799 0.176063 -0.965531 32 136 186
-2.30767 -2.71956 10.3605 134 180 212
-0.50156 0.282404 -0.904055 72 51 78
-0.434732 0.163402 -0.943632 63 87 108
-0.507467 0.246026 -0.746774 40 139 204
-0.507424 0.235904 -0.719979 19 77 154
-4.2778 -3.14785 9.91111 35 88 156
-0.776606 -0.455376 2.82284 173 158 135
-0.767811 -0.419489 2.76508 172 156 133
-0.915454 -0.528155 3.09649 174 184 130
-0.504641 0.264463 -0.848868 168 128 89
-0.605312 0.1898 0.841321 31 45 93
-0.34666 0.18772 -0.70716 51 73 93
1.38491 -0.8101 7.09769 32 53 72
-3.861 -2.31808 10.1661 49 78 103
2.54246 -1.3973 9.19434 33 57 79
1.30394 -3.15408 10.6628 53 94 149
0.576658 2.11479 1.95252 71 55 44
1.95599 -4.114 9.29117 182 214 234
1.95599 -4.114 9.29117 182 214 234
1.2097 -4.34579 9.29826 205 234 252
2.81817 -4.92865 8.90117 171 203 222
-0.116407 0.222959 -1.49764 168 204 224
-0.11635 0.222896 -1.49748 164 199 223
-0.116356 0.222796 -1.49732 183 214 232
2.92451 -4.0212 9.44684 169 203 224
-0.116414 0.222964 -1.49766 204 237 255
1.91008 -5.00975 8.82458 204 235 253
-2.1612 -2.52176 9.67229 181 226 252
0.95422 -4.85458 8.55553 185 217 237
-2.69847 -1.16102 8.80348 84 122 158
1.45749 -4.50409 8.45614 185 216 234
1.45749 -4.50409 8.45614 185 216 234
-1.32707 -2.426 11.8631 62 90 116
-0.116626 0.222701 -1.49651 174 221 250
-0.116227 0.222514 -1.49683 188 222 242
-0.116227 0.222514 -1.49683 188 222 242
-0.11641 0.222717 -1.49721 197 228 248
-0.11641 0.222717 -1.49721 197 228 248
-0.116397 0.222648 -1.49709 192 221 238
-0.116448 0.222697 -1.49719 192 221 239
-0.116448 0.222697 -1.49719 191 221 239
-1.3598 0.654218 2.73489 76 60 57
-0.121643 -4.60992 9.16988 214 240 255
1.45634 -1.68881 9.74268 23 51 77
0.342791 -0.163481 6.21743 39 55 68
-4.04788 -0.445076 7.79414 27 37 50
0.347824 -0.609565 8.13292 59 83 104
0.82786 -1.07744 8.56196 27 48 70
0.922744 -1.02692 8.94809 24 44 63
2.59119 -1.18153 8.14059 54 80 106
0.48794 -0.826007 8.39385 24 44 63
0.625008 -2.39376 11.4075 129 140 134
-2.2598 -1.0771 9.02225 49 70 89
-0.923064 -0.294279 2.24032 50 73 93
-2.18316 -1.56577 9.539 81 115 147
0.594375 -1.24171 8.93641 30 52 74
-2.21553 -1.2283 9.09593 26 49 71
-2.82696 -0.918444 8.50036 24 43 62
-2.06654 -0.636544 8.41057 30 44 60
-0.116401 0.222925 -1.49759 179 211 230
-2.2276 -0.746844 8.40852 118 159 199
-2.26508 -0.76555 8.60273 120 163 205
2.60041 -1.64828 9.44785 23 54 81
-0.0903361 -0.660617 3.46239 57 83 105
2.2767 -4.99886 8.84503 174 206 226
0.378337 -1.15442 8.65624 24 45 64
-0.12002 0.248842 -1.36019 151 118 99
-1.99673 -2.59358 10.5445 159 201 228
-1.97697 -2.5569 10.4001 156 196 223
-0.0444417 -1.11332 8.978 56 79 100
-0.976985 -0.600304 6.42965 50 72 90
1.03679 -1.31607 9.06804 54 84 109
-1.15241 -0.577515 7.11094 27 85 142
-1.67434 -1.15085 9.90867 162 151 156
-1.42978 -0.807349 8.36228 41 110 165
-1.32001 -0.605661 7.88193 41 94 149
0.0908545 -0.647121 3.78892 31 53 75
-2.16962 -1.02871 8.92391 39 61 83
-0.116411 0.222963 -1.49765 205 235 252
-0.116343 0.222634 -1.49706 211 241 255
1.11833 -1.03265 8.59249 88 124 160
0.937992 -0.894158 8.493 53 79 100
0.803199 -0.779461 8.2684 22 49 75
-2.08256 -2.72569 10.7118 103 152 185
3.62801 -1.98371 10.2961 83 112 146
-3.24404 -4.85724 8.90228 170 218 251
-0.116427 0.22296 -1.49765 177 211 232
0.840256 -0.996381 8.64038 29 58 79
3.25459 -1.69507 9.58033 24 50 75
-4.6038 -3.79114 12.2279 25 57 98
-0.116811 0.250296 -1.37135 110 79 62
-0.167414 0.189693 -1.00741 175 167 169
-0.17691 0.174606 -0.930231 118 109 106
-3.88146 -1.75279 9.41554 92 125 152
2.77513 -1.09357 9.5379 23 43 62
0.867869 -0.968455 8.48226 26 46 65
-2.14309 -0.980333 8.97296 25 46 67
-0.120331 0.00399034 -0.274688 112 122 90
-0.183696 0.0545212 0.174919 148 131 117
-0.167795 0.0530089 0.0293747 131 115 101
-0.0908231 0.0610961 -0.58712 165 180 145
-0.0894271 -0.0116427 -0.387214 112 131 107
-0.0873304 0.0647706 -0.615767 158 175 145
-2.15421 -2.30293 10.6361 45 80 110
-0.151983 0.0319221 -0.0351635 114 97 82
-2.79557 -0.949024 8.66109 24 51 77
-2.53749 -1.82107 10.0967 59 83 106
1.37208 -1.20849 8.84263 29 55 78
-0.116407 0.222959 -1.49764 166 204 224
-0.139813 0.0600132 -0.0399377 110 104 78
0.830436 -1.26156 8.84914 54 81 96
-0.157395 0.0125077 -0.270792 100 107 86
2.51607 -2.101 10.8834 33 63 92
-2.07231 -2.71211 10.4234 124 172 204
-0.134035 0.0441238 -0.460469 109 119 86
-0.0994353 -0.00830542 -0.450286 141 159 128
-0.1857 0.0525881 -0.657477 164 177 134
-0.116409 0.222957 -1.49764 206 239 255
0.689919 -1.25121 9.01532 31 51 68
-2.24798 -1.44084 9.23187 29 51 69
0.958295 -1.19504 9.125 28 51 71
0.958295 -1.19504 9.125 28 51 71
-0.116188 0.222679 -1.49695 192 225 245
0.834993 -1.12839 8.55576 24 45 65
0.834993 -1.12839 8.55576 24 45 65
-0.442048 1.23925 3.28832 185 112 78
-0.375339 1.74441 3.39154 182 123 71
-2.83437 -0.898557 15.6738 127 108 103
1.45082 -1.88645 9.74497 35 63 88
1.45082 -1.88645 9.74497 35 63 88
-0.788829 1.29556 5.63044 169 92 42
-3.35484 -1.26056 18.2263 118 99 94
-0.369239 1.36534 2.89527 183 115 77
-0.364174 1.37935 2.85048 178 108 55
-1.11874 0.689557 6.86859 200 155 108
-1.00332 0.655637 7.01155 165 113 82
-0.467871 1.2288 3.12684 184 109 55
-0.467871 1.2288 3.12684 184 109 55
-0.476589 2.13232 4.23834 18 39 68
-2.21578 -0.776646 14.7871 20 60 91
-2.1356 -0.577181 14.1637 18 67 131
-0.455671 1.71182 3.4263 160 122 95
-0.901659 0.823786 6.93658 30 41 102
-0.649591 1.40682 4.15622 156 81 42
-0.538485 1.39073 3.5399 200 130 78
-0.231069 -0.0403543 -0.26069 163 174 133
-0.475174 -0.207184 1.58042 83 108 109
-0.308656 -0.96804 8.35388 109 153 160
-4.45996 -3.46266 10.299 39 88 154
0.858796 -0.720553 8.12248 27 50 72
2.73019 -4.91718 8.90515 198 229 248
2.45505 -4.84007 8.97866 208 235 251
2.46473 -4.85993 9.01773 208 235 251
3.40943 -1.71545 9.6831 84 119 154
3.40943 -1.71545 9.6831 84 119 154
3.38325 -1.5016 9.43319 23 44 65
3.38325 -1.5016 9.43319 23 44 65
1.99152 -4.33955 9.67788 202 232 250
1.99152 -4.33955 9.67788 202 232 250
3.67763 -1.53278 9.49058 104 133 165
2.90098 -4.26682 9.31748 177 209 229
3.60893 -1.52288 9.44816 22 41 60
3.46464 -1.67234 9.69083 32 58 81
3.63567 -1.72803 9.66479 68 90 117
3.6399 -1.41946 9.30132 79 103 129
3.32877 -3.91631 9.60456 169 202 224
2.17438 -4.60119 8.8197 208 236 252
2.17438 -4.60119 8.8197 208 236 252
3.6453 -1.42203 9.31615 81 106 133
2.22237 -4.32981 9.04982 176 207 226
2.74474 -4.15637 9.39225 171 204 224
1.53815 -3.64057 9.04825 198 229 249
1.53815 -3.64057 9.04825 198 229 249
1.7251 -4.58666 9.14132 207 236 252
-0.151983 0.0319221 -0.0351635 114 94 78
2.98869 -4.40232 9.64584 177 209 229
